# .PCD v0.7 - Point Cloud Data file format
VERSION 0.7
FIELDS x y z
SIZE 4 4 4
TYPE F F F
COUNT 1 1 1
WIDTH 1375
HEIGHT 1
VIEWPOINT 0 0 0 1 0 0 0
POINTS 1375
DATA ascii
-0.36836919 -0.16186973 0.20585828
-0.35557455 -0.17000961 0.21359955
-0.34570938 -0.17000961 0.21297675
-0.33954668 -0.16292116 0.18600224
-0.32361817 -0.17000961 0.21525745
-0.31529909 -0.17000961 0.21313433
-0.30480677 -0.17000961 0.21472211
-0.29765317 -0.17000961 0.21587017
-0.15135451 -0.13642219 0.17235224
-0.27249378 -0.17000961 0.21359307
-0.26422963 -0.17000961 0.21157247
-0.25507829 -0.17000961 0.21552891
-0.24273217 -0.17000961 0.21613306
-0.23547465 -0.17000961 0.216966
-0.22451006 -0.17000961 0.21524166
-0.21580756 -0.17000961 0.21499792
-0.20433608 -0.17000961 0.21542561
-0.19444034 -0.17000961 0.21456015
-0.1482403 -0.13868986 0.17972909
-0.025170777 -0.16399482 0.10436821
-0.11432835 -0.15661314 0.19476573
-0.15785952 -0.17000961 0.21355119
-0.14451098 -0.17000961 0.21443443
-0.15548155 -0.16834299 0.19528256
-0.066673316 -0.16154215 0.20688747
-0.11471158 -0.17000961 0.21501444
-0.10736768 -0.17000961 0.21403055
-0.094582066 -0.17000961 0.21834403
-0.085589275 -0.17000961 0.21558575
-0.07512603 -0.17000961 0.21568431
-0.073874913 -0.16834298 0.20243278
-0.054403454 -0.17000961 0.2155879
-0.11613609 -0.16668086 0.21157698
-0.037112828 -0.17000963 0.21633852
-0.025135126 -0.17000961 0.21745062
-0.016506352 -0.17000961 0.21241501
-0.0052693924 -0.17000961 0.21452543
0.0033693397 -0.17000961 0.2153779
0.015170445 -0.17000963 0.21623565
0.024866171 -0.17000961 0.21504793
0.059506375 -0.15333214 0.1802565
0.044557076 -0.17000961 0.21398672
0.053717449 -0.17000961 0.21700257
0.14223379 -0.13891318 0.13798201
0.088750556 -0.17000966 0.19544607
0.1091392 -0.14680809 0.17075716
0.19221798 -0.13698754 0.1067775
0.028756037 -0.14121972 0.12768762
0.11796021 -0.17000961 0.21420431
0.12787852 -0.16559482 0.18372171
0.06094734 -0.14938356 0.18746632
0.1455804 -0.17000961 0.21395254
0.15816537 -0.17000961 0.21481884
0.16721848 -0.17000961 0.2161867
0.1610872 -0.16858105 0.21056953
0.19568124 -0.17000961 0.21618901
0.20684813 -0.17000961 0.21554598
0.17370518 -0.15732306 0.16063224
0.23134942 -0.17000964 0.19436161
0.2619735 -0.17000975 0.14180115
0.10133202 -0.17000961 0.20488136
0.25352964 -0.17000966 0.18874101
0.26642722 -0.17000963 0.21529882
0.27696148 -0.17000961 0.21415947
0.28539979 -0.17000963 0.21579918
0.29586327 -0.17000961 0.21188684
0.30459091 -0.17000961 0.21522157
0.3158572 -0.17000961 0.21524295
0.32531005 -0.17000961 0.21512616
0.33443519 -0.17000961 0.21331541
0.34619844 -0.17000961 0.21560055
0.35519102 -0.17000961 0.21656585
0.36504766 -0.17000963 0.21534701
0.37382001 -0.17000961 0.21591626
0.38389874 -0.17000961 0.21583137
0.36626375 -0.15303442 0.18682297
-0.40002865 -0.16433318 0.21166556
-0.38483581 -0.16000961 0.21628445
-0.37493658 -0.16000962 0.21446589
-0.3645986 -0.16000961 0.21294867
-0.26945865 -0.14273094 0.17303583
-0.34297052 -0.16000961 0.21515781
-0.33561602 -0.16000959 0.21539703
-0.32667878 -0.16000961 0.21479297
-0.31368366 -0.16000962 0.2152541
-0.23220868 -0.16061513 0.18099348
-0.18532984 -0.13534003 0.19942693
-0.29224971 -0.15364403 0.18870381
-0.27650487 -0.16000961 0.21678658
-0.20649426 -0.16000962 0.20627849
-0.25414437 -0.16000961 0.2165198
-0.20442282 -0.13587777 0.19277884
-0.23632336 -0.16000961 0.21426503
-0.40002868 -0.084549293 0.18359995
-0.21268083 -0.16000959 0.21508236
-0.20557331 -0.16000962 0.21441303
-0.19483818 -0.16000961 0.21576786
-0.18541604 -0.16000962 0.21558495
-0.17457044 -0.16000961 0.21486764
-0.16792648 -0.16000959 0.21901526
-0.12584937 -0.15158172 0.19607939
-0.14730614 -0.16000962 0.21237467
-0.1352161 -0.16000959 0.21402225
-0.124439 -0.16000959 0.21833734
-0.11752865 -0.16000961 0.21452889
-0.10245927 -0.16000962 0.2139248
-0.057121564 -0.14371347 0.18345208
-0.085877769 -0.16167632 0.20037389
-0.070923001 -0.15529466 0.20099545
-0.065471888 -0.16000961 0.21411519
-0.057178885 -0.16000962 0.21455261
-0.04540325 -0.16000962 0.21623409
-0.035864666 -0.16000959 0.21734874
-0.025456158 -0.16000962 0.21412419
-0.013642407 -0.16000961 0.21624213
-0.0089038834 -0.16000962 0.21552834
0.090000033 -0.163343 0.19024414
0.015549845 -0.16000962 0.21354413
0.024818484 -0.16000962 0.21182328
0.035586089 -0.16000961 0.21566625
0.045592569 -0.16000961 0.21654719
0.056968879 -0.16000962 0.21447225
0.065791003 -0.16000961 0.21291216
0.11791367 -0.12827772 0.16604778
0.084740654 -0.16000961 0.21600425
0.096946329 -0.16000961 0.21372037
0.1197888 -0.16125965 0.19223531
0.11654171 -0.16000962 0.21450953
0.090462796 -0.134121 0.1781235
0.11572871 -0.14467338 0.19344532
0.10574485 -0.13918163 0.20624839
0.16324024 -0.16000959 0.2174155
0.1754712 -0.16000961 0.21693335
0.18381849 -0.16000961 0.21485014
0.19515981 -0.16000962 0.21380186
0.20368291 -0.16000962 0.21334304
0.21604526 -0.16000962 0.21408691
0.2252605 -0.16000962 0.21448718
0.14993221 -0.15222213 0.18330148
0.12002263 -0.16200967 0.17161234
0.25573921 -0.16000961 0.2140518
0.26376402 -0.16000961 0.21661235
0.27500609 -0.16000961 0.21416152
0.24745661 -0.14799285 0.21357207
0.1966449 -0.1618495 0.17421196
0.30625388 -0.16000959 0.21703121
0.31604728 -0.16000961 0.21362208
0.32352406 -0.16000961 0.21698891
0.33585268 -0.16000961 0.21682517
0.34518823 -0.16000961 0.21536128
0.26253089 -0.12980653 0.17265148
0.30138934 -0.14848796 0.19321771
0.33254713 -0.15806636 0.18792805
0.38458332 -0.16000962 0.21417667
0.39997 -0.16312703 0.21499208
-0.40002865 -0.15219508 0.21500501
-0.3558453 -0.1567547 0.20550624
-0.005029608 -0.15755418 0.21761373
-0.023777494 -0.15518506 0.20849596
0.34039357 -0.14946732 0.19908544
0.37126213 -0.13605696 0.16075727
-0.30719656 -0.15253478 0.20648119
-0.25836217 -0.13774353 0.18935406
-0.0050296085 -0.1474127 0.21763948
0.014970127 -0.14441477 0.19026425
0.30606803 -0.14836398 0.18780766
0.39997 -0.1433233 0.2176901
-0.40002865 -0.13519302 0.21269652
-0.39002863 -0.13782112 0.21482335
-0.0050296085 -0.13354692 0.21733446
0.0049703871 -0.13389885 0.21477389
0.33672613 -0.14059994 0.20253256
0.39997 -0.13375734 0.21555179
-0.37092385 -0.13185757 0.20804478
-0.25394225 -0.10795859 0.15660079
-0.0050296169 -0.12562764 0.21287116
0.028119432 -0.11062177 0.18312998
0.29121959 -0.12276964 0.19058256
0.39611506 -0.11735858 0.18974498
-0.36934882 -0.12424657 0.19189972
-0.39002866 -0.11423844 0.21339352
-0.061458088 -0.10281225 0.19273099
0.004970388 -0.11372457 0.21543832
0.28338501 -0.12561895 0.17914671
0.39997002 -0.11629456 0.21469006
-0.40002865 -0.10535416 0.21503747
-0.3900286 -0.1033815 0.21405749
-0.0050296099 -0.10344082 0.21666734
-0.039962955 -0.1129133 0.18318054
0.32728982 -0.1092638 0.15122013
0.28635782 -0.11729099 0.20618723
-0.16950718 -0.11490791 0.13013577
-0.39002866 -0.094736993 0.21575843
-0.0050296155 -0.095919691 0.21337596
0.0049703829 -0.093955033 0.21255592
0.38996941 -0.093224868 0.21449327
0.36784619 -0.098302476 0.19483154
-0.20518939 -0.069267333 0.13908257
-0.39002863 -0.086814694 0.21688762
-0.0050296113 -0.083691731 0.21601865
0.13663694 -0.083981268 0.15763532
0.38996938 -0.083860159 0.21377826
0.28489825 -0.096354112 0.17479558
-0.38298365 -0.090286501 0.20614479
-0.39002866 -0.075614922 0.21505323
-0.0050296122 -0.073679604 0.21557051
0.0049703866 -0.072661147 0.21459036
0.38996941 -0.075098976 0.2133165
0.39997002 -0.076159574 0.21333452
-0.26962638 -0.087687746 0.19466633
-0.27933261 -0.063171968 0.18369167
-0.0050296132 -0.064956397 0.2147278
-0.051458102 -0.064099044 0.18579477
0.38996941 -0.066973895 0.21659741
0.23670645 -0.089486793 0.16872676
-0.40002865 -0.054753721 0.2130585
-0.39002866 -0.053814076 0.21386795
0.037488874 -0.066698946 0.19137952
0.0049703885 -0.055493817 0.21567814
0.38996941 -0.057595983 0.21117446
0.39997002 -0.055901162 0.21261892
-0.40002859 -0.043571569 0.21541901
-0.39002863 -0.044419426 0.21712983
-0.0050296094 -0.043084837 0.21656437
0.064822361 -0.065102741 0.20274179
0.38996938 -0.046081517 0.21688512
0.39997002 -0.046270806 0.21513207
-0.40002865 -0.034769498 0.21569352
-0.39002866 -0.036623929 0.21476747
-1.3716364e-05 -0.057242464 0.15079573
0.062836662 -0.061587837 0.17031626
0.38996941 -0.030810684 0.21658866
0.39997002 -0.034148257 0.21314578
-0.20002899 -0.040694259 0.13872895
-0.39002863 -0.024167422 0.21709535
-0.0050296108 -0.02538141 0.21606019
0.004970389 -0.025076881 0.21592918
0.38996938 -0.02297435 0.21652783
0.28145337 -0.029844552 0.17260726
-0.26836234 -0.029796284 0.19111007
-0.36670858 -0.033235375 0.18965843
-0.0050296108 -0.014378494 0.21598852
0.024812756 -0.037925974 0.20442262
0.38996941 -0.015444542 0.21506
0.39997002 -0.01699033 0.21488872
-0.28668186 -0.03659898 0.16026576
-0.34544897 -0.0065472266 0.20770116
-0.032897577 -0.010590032 0.18680586
0.0049703824 -0.0057308013 0.21223824
0.38996938 -0.0042135511 0.21718693
0.34127918 -0.010166158 0.20343286
-0.22486946 -0.16773 0.19607632
-0.1811578 -0.15299197 0.16606541
-0.37495449 -0.1700096 0.22561245
-0.29124779 -0.15307119 0.18973108
-0.35318556 -0.1700096 0.2241026
-0.34605542 -0.1700096 0.22516429
-0.30928046 -0.16762751 0.20300822
-0.32377854 -0.1700096 0.22807629
-0.31267998 -0.1700096 0.22518829
-0.22602992 -0.14958626 0.175763
-0.29675877 -0.17000958 0.22500861
-0.28483215 -0.1700096 0.22263573
-0.27351615 -0.1700096 0.22512977
-0.26400334 -0.17000961 0.22474729
-0.25384012 -0.1700096 0.2252932
-0.14694259 -0.1607835 0.18270035
-0.23712032 -0.1700096 0.22501217
-0.22342756 -0.1700096 0.2236658
-0.14618659 -0.16529334 0.17178871
-0.20465718 -0.1700096 0.22558796
-0.22299527 -0.17000964 0.20642965
-0.1858516 -0.17000958 0.22592458
-0.20169318 -0.14914601 0.20680991
-0.16402359 -0.1700096 0.22716379
-0.11756515 -0.14348854 0.19134699
-0.14314708 -0.17000958 0.22656654
-0.13423941 -0.1700096 0.22570831
-0.070470527 -0.15592667 0.15407202
-0.11409615 -0.17000958 0.22567345
-0.082338296 -0.16677593 0.21686471
-0.092010856 -0.17000958 0.22616377
-0.086272597 -0.1700096 0.22365411
-0.075745277 -0.1700096 0.22650719
-0.064003013 -0.1700096 0.22583356
-0.08987987 -0.16456638 0.20813055
-0.057602867 -0.15061203 0.19720866
-0.037380945 -0.1700096 0.2244983
-0.044869985 -0.14372598 0.13153951
-0.016045293 -0.17000958 0.22517398
-0.015606835 -0.16799776 0.21601051
0.0051078424 -0.17000958 0.22715804
0.014473326 -0.1700096 0.225348
0.027246639 -0.1700096 0.22420576
0.034528773 -0.17000958 0.22158912
0.041454919 -0.1700096 0.22264811
0.057097465 -0.1700096 0.22309774
0.040520862 -0.16549873 0.19208659
-0.12247851 -0.14317444 0.11101831
0.037976444 -0.15273024 0.18939024
0.096024118 -0.1700096 0.22697031
0.1036928 -0.17000961 0.2260977
0.11440773 -0.17000958 0.22448517
0.12630732 -0.1700096 0.22493939
0.091484629 -0.15073606 0.19539297
0.14559779 -0.17000958 0.22769177
0.15407839 -0.1700096 0.22420433
0.16393939 -0.1700096 0.22597127
0.17492257 -0.1700096 0.22510399
0.11748347 -0.14810038 0.1504463
0.19560616 -0.1700096 0.22549126
0.20562637 -0.17000958 0.22364932
0.21496581 -0.17000958 0.22710231
0.22600304 -0.17000958 0.22647598
0.2330465 -0.1700096 0.22371176
0.26522669 -0.15478729 0.21889021
0.21154647 -0.16560867 0.20611636
0.26591113 -0.1700096 0.22383821
0.27355954 -0.1700096 0.22711095
0.21714629 -0.14555065 0.21091197
0.23096007 -0.13821191 0.14292166
0.30649617 -0.1700096 0.22424299
0.31507474 -0.1700096 0.22521089
0.32616359 -0.17000958 0.22851777
0.22060123 -0.16875961 0.21265078
0.34569961 -0.1700096 0.22467923
0.35415334 -0.1700096 0.22585553
0.26598409 -0.1583847 0.1951381
0.29618064 -0.1596473 0.21916072
0.38457185 -0.17000961 0.2251724
0.39353415 -0.1700096 0.22603765
-0.40002859 -0.16546908 0.22467041
-0.27296257 -0.13351661 0.12464049
-0.28423721 -0.15595029 0.18349823
-0.24867693 -0.14783709 0.17888431
-0.16590898 -0.12937772 0.14947
0.0053555206 -0.13646716 0.056921203
-0.24582015 -0.16000967 0.18772386
-0.34026617 -0.15124802 0.20927657
-0.32382485 -0.15444279 0.14876683
-0.30179751 -0.16000961 0.22528891
-0.2967034 -0.16000961 0.22680187
-0.20062703 -0.14523418 0.19391604
-0.27445802 -0.16000961 0.22539206
-0.1709649 -0.14830478 0.20133017
-0.25525424 -0.16000961 0.22470005
-0.24361873 -0.16000959 0.22536862
-0.23395018 -0.16000961 0.22384527
-0.17393295 -0.12865436 0.14973697
-0.16129035 -0.15834807 0.20086031
-0.18113241 -0.16125961 0.22165225
-0.19536084 -0.16000959 0.22439545
-0.010358816 -0.16334298 0.19703779
-0.11406501 -0.16000962 0.21278332
-0.16339082 -0.16000959 0.22724079
-0.15317598 -0.16000959 0.2243056
-0.14670692 -0.16000959 0.2220764
-0.056204896 -0.16167629 0.20522782
-0.02121011 -0.1428756 0.18392234
-0.1146372 -0.16000959 0.22558676
-0.21277611 -0.16000973 0.15824613
-0.1549173 -0.15279634 0.19924226
-0.10469854 -0.13286714 0.18102883
-0.071941733 -0.16000959 0.2294748
-0.072171077 -0.14916819 0.18633449
-0.054934978 -0.16000961 0.22523279
-0.041966394 -0.16000959 0.22660509
-0.037126858 -0.16000959 0.22479922
0.027517131 -0.15949096 0.20884529
-0.016029391 -0.16000961 0.22522172
-0.014554823 -0.161338 0.18414176
0.0075088437 -0.16000959 0.22622611
0.061552033 -0.15202084 0.19560082
-0.036903027 -0.16000961 0.21450001
0.03665575 -0.16000961 0.22244866
0.044631805 -0.16000959 0.22670557
0.053841501 -0.16000961 0.22567537
0.065044239 -0.16000959 0.22461614
0.11845348 -0.16000968 0.18078388
0.084633544 -0.16000961 0.22437486
0.12018434 -0.14901583 0.20267797
0.12571838 -0.16143821 0.1954318
0.042126898 -0.15071689 0.19939958
0.12637679 -0.16000959 0.22634536
0.13407929 -0.16000961 0.22280717
0.14475654 -0.16000959 0.2263521
0.15502922 -0.16000961 0.22356181
0.032275822 -0.16167639 0.156818
0.17514578 -0.16000961 0.22505723
0.18404484 -0.16000959 0.22703603
0.19562863 -0.16000961 0.22483166
0.203539 -0.16000959 0.22440115
0.17951153 -0.14628282 0.1671903
0.22516036 -0.16000961 0.22491567
0.2316604 -0.13759544 0.19140834
0.1428396 -0.1628668 0.19976398
0.2567836 -0.16000959 0.22588257
0.26498052 -0.16000959 0.22467901
0.27465758 -0.16000959 0.2264507
0.23857421 -0.16143821 0.1997055
0.29485303 -0.16000959 0.22504874
0.30846474 -0.16000959 0.22514999
0.31480077 -0.16000961 0.22362711
0.3249248 -0.16000961 0.22437362
0.3364794 -0.16000958 0.22722714
0.34182811 -0.16000959 0.22761035
0.35639113 -0.16000959 0.2266701
0.36360723 -0.16000961 0.22538033
0.22523698 -0.14659066 0.18565814
0.32829633 -0.15663928 0.21619749
0.39081556 -0.15821211 0.19613491
-0.40002865 -0.15548277 0.22550513
-0.047320977 -0.13594009 0.11031393
-0.0050295922 -0.15540098 0.22634843
0.026305173 -0.15818585 0.20509261
0.38996941 -0.1544245 0.22490475
0.37068191 -0.15897533 0.21701269
-0.27270192 -0.14820375 0.22180897
-0.2227858 -0.15171592 0.1689869
-0.0050295964 -0.14521611 0.22421874
0.0049704043 -0.14532837 0.22441186
0.3295241 -0.13513307 0.20393799
0.39997 -0.14241379 0.2240371
-0.40002859 -0.13651446 0.22575761
-0.23708613 -0.11399976 0.17939661
-0.0050295941 -0.13387269 0.22543633
-0.050498117 -0.12273557 0.17763829
0.18143415 -0.11896821 0.16525745
0.39997002 -0.1347736 0.22475062
-0.40002865 -0.12473438 0.22472624
-0.3900286 -0.12535255 0.22832653
0.015432211 -0.12993571 0.19597127
0.004970408 -0.12507074 0.22633386
0.38996941 -0.12548053 0.22492443
0.32064518 -0.12821087 0.20701976
-0.40002859 -0.11688032 0.22527519
-0.3900286 -0.11373731 0.22613291
-0.0050295983 -0.11351336 0.22330281
0.004970402 -0.11272962 0.22314918
0.38996941 -0.1117688 0.22663453
0.39997002 -0.1164128 0.22520585
-0.40002859 -0.10415485 0.22501907
-0.3900286 -0.10395122 0.22554047
-0.066138223 -0.08478146 0.17937884
0.22291902 -0.11252134 0.081533067
0.38996941 -0.10442585 0.22272359
0.33187461 -0.10783157 0.19428624
-0.40002865 -0.097084031 0.22602855
-0.34123635 -0.10829836 0.21161404
-0.11124661 -0.11371416 0.14098334
0.0049704048 -0.095785841 0.22477946
0.37208098 -0.10645071 0.20091751
0.39997002 -0.095075324 0.2240642
-0.31729692 -0.087191164 0.17976095
-0.3900286 -0.08341717 0.2243561
0.061612155 -0.10025164 0.19013402
0.0049704104 -0.083583318 0.22748001
0.38996941 -0.08269801 0.22461021
0.39997 -0.084397838 0.22460255
-0.35398802 -0.081271254 0.19946477
-0.13002926 -0.077939428 0.22375306
0.092243455 -0.093729801 0.1095196
0.0049704066 -0.076254904 0.22597156
0.38996941 -0.075655393 0.22533312
0.39997 -0.073083848 0.22677706
-0.30235547 -0.054620676 0.16861834
-0.3900286 -0.063882515 0.22460282
0.052827492 -0.062234711 0.19538365
-0.0023891833 -0.074191324 0.19472183
0.38996941 -0.065520562 0.22577031
0.3127152 -0.075414822 0.21748002
-0.40002862 -0.055621948 0.22636119
-0.38201183 -0.050292522 0.20843093
-0.0050295936 -0.054871723 0.22571304
0.0049704053 -0.057764865 0.22472787
0.38996941 -0.054764997 0.22552983
0.33542106 -0.053726736 0.16750033
-0.24490495 -0.066550426 0.17859399
-0.3900286 -0.047313344 0.22482388
-0.0050295931 -0.044591777 0.22593388
0.0049704094 -0.047186919 0.22733755
0.38996944 -0.042707428 0.22922753
0.39871994 -0.048394226 0.22415867
-0.40002859 -0.034249559 0.22191656
-0.39002863 -0.036455002 0.22411796
-0.037086174 -0.081146561 0.1778031
0.0049704039 -0.034138497 0.22418094
0.38996941 -0.035249934 0.22685872
0.31204209 -0.054700594 0.20725319
-0.40002865 -0.025535537 0.22466928
-0.38578534 -0.047511738 0.21704757
-0.0050295992 -0.025275156 0.22235337
-0.090206459 -0.094576478 0.15832552
0.38996941 -0.025096878 0.22602616
0.16880138 -0.085810021 0.21729845
-0.40002862 -0.014204852 0.22425614
-0.3900286 -0.015106996 0.22726202
-0.005029602 -0.016434632 0.22111027
0.0049704094 -0.014571341 0.22724494
0.36750832 -0.036540866 0.17750067
0.39997002 -0.013861366 0.22433917
-0.40002859 -0.0037367742 0.22728252
-0.23353885 -0.0067767971 0.16839553
-0.0039060568 -0.0032117057 0.22570167
0.0031870343 -0.00099256483 0.22374021
0.2551825 -0.042933892 0.076366894
0.37210506 -0.015671778 0.22265998
-0.39362428 -0.1649864 0.19864805
-0.38419968 -0.17000958 0.23452687
-0.29062611 -0.16402534 0.21102615
-0.19735798 -0.17000961 0.21377528
-0.20242351 -0.1607694 0.17574699
-0.3447642 -0.17000958 0.23214361
-0.21873756 -0.14493258 0.18983616
-0.32479617 -0.1700096 0.2346452
-0.29629859 -0.16858108 0.20612779
-0.27745056 -0.17000963 0.22783715
-0.19803548 -0.13661757 0.175916
-0.28545851 -0.17000958 0.23360962
-0.27413851 -0.17000958 0.232842
-0.26504058 -0.17000957 0.23498236
-0.25687528 -0.17000958 0.2339287
-0.2431602 -0.1700096 0.23337708
-0.23460136 -0.17000957 0.23557776
-0.19686492 -0.1687596 0.22066897
-0.2158685 -0.17000958 0.23700914
-0.19303831 -0.12677445 0.1658988
-0.19690797 -0.17000957 0.23448972
-0.18445849 -0.17000958 0.23595719
-0.046661343 -0.14390178 0.17373869
-0.16569409 -0.17000958 0.23584406
-0.15334168 -0.17000958 0.23483741
-0.1436899 -0.1700096 0.23348382
-0.13634422 -0.17000957 0.23541763
-0.12389646 -0.17000958 0.23416436
-0.1126983 -0.1700096 0.23535629
-0.10499161 -0.17000958 0.23649603
-0.092696674 -0.17000958 0.23558101
-0.084418558 -0.1700096 0.23448029
-0.10637342 -0.16276686 0.21092983
-0.062130492 -0.17000957 0.23527227
-0.056298409 -0.17000958 0.2360723
-0.036321729 -0.17000958 0.23667157
-0.064223081 -0.16385141 0.20087741
-0.048700046 -0.16583008 0.2282185
-0.0051420508 -0.17000958 0.23701957
0.0077793719 -0.17000958 0.23328687
-0.083047181 -0.12507893 0.13503754
0.02625984 -0.17000957 0.23391731
0.035417613 -0.17000957 0.23459184
0.043078169 -0.1700096 0.23443411
0.056371007 -0.17000958 0.23477565
0.066764489 -0.17000958 0.2355008
0.07448972 -0.1700096 0.2342132
0.17155766 -0.12191834 0.21273381
0.094476014 -0.17000958 0.23378412
0.10441425 -0.17000957 0.23501536
0.1165408 -0.17000957 0.23598802
0.19252585 -0.17000961 0.21505845
0.1340584 -0.17000958 0.23554078
0.14417733 -0.17000958 0.23323303
0.15187888 -0.1700096 0.23547314
0.13066164 -0.14714976 0.21179383
0.1746569 -0.17000958 0.2358688
0.18316309 -0.17000958 0.23579714
0.19418293 -0.17000958 0.23419926
0.20795387 -0.17000958 0.2346403
0.21566384 -0.17000958 0.23537499
0.16397996 -0.15366097 0.20834194
0.2353586 -0.17000958 0.23198286
0.24715401 -0.17000958 0.23633167
0.2558656 -0.17000958 0.23599948
0.26808268 -0.17000957 0.23512749
0.27574039 -0.17000958 0.23612499
0.25846389 -0.16417004 0.19604258
0.29475737 -0.17000958 0.23630397
0.30480382 -0.1700096 0.23480546
0.31214634 -0.14804299 0.20075582
0.32450008 -0.1700096 0.23501584
0.33442858 -0.1700096 0.23309538
0.25256833 -0.14645889 0.20096876
0.35664067 -0.17000958 0.23555341
0.31810573 -0.1219853 0.15474483
0.37176207 -0.17000958 0.2343265
0.38562855 -0.17000963 0.21928754
0.39462453 -0.1700096 0.23370913
-0.40002859 -0.16628964 0.23511073
-0.32555151 -0.11510511 0.11725494
-0.37618786 -0.16000956 0.23379001
-0.3641645 -0.16000958 0.23281446
-0.29667944 -0.15324084 0.20192303
-0.34474307 -0.16000958 0.23422889
-0.33313361 -0.16000956 0.23526987
-0.32562697 -0.16000956 0.2367413
-0.31302857 -0.16000956 0.23534223
-0.30607161 -0.16000956 0.23327588
-0.29493645 -0.16000958 0.23317406
-0.28558299 -0.16000958 0.23453324
-0.27790615 -0.16000958 0.23467112
-0.26630685 -0.16000958 0.23541649
-0.27070931 -0.14502229 0.22470863
-0.24393368 -0.16000956 0.23481326
-0.19702488 -0.16125961 0.20917152
-0.22125059 -0.16143817 0.21664563
-0.21592566 -0.16000958 0.23366721
-0.20492272 -0.16000958 0.23453256
-0.19536749 -0.16000956 0.23559079
-0.16705115 -0.16061836 0.20520951
-0.17374291 -0.16000956 0.23689172
-0.1660239 -0.16000958 0.23464429
-0.15493082 -0.16000956 0.23647651
-0.1469146 -0.16000956 0.23428378
-0.13474491 -0.16000958 0.23407948
-0.12536588 -0.16000956 0.2361709
-0.11474565 -0.16000958 0.2350163
-0.051779717 -0.16125964 0.2053552
-0.09695445 -0.16000956 0.23630479
-0.084403485 -0.16000956 0.23556596
-0.074664339 -0.16000956 0.23563543
-0.064764164 -0.16000958 0.23473796
-0.055564236 -0.16000956 0.23603623
-0.045632921 -0.16000958 0.23395024
-0.036423963 -0.16000958 0.23273003
-0.023479348 -0.16000956 0.23548657
-0.08829204 -0.16000965 0.18961377
-0.0089402171 -0.16000956 0.23844025
-0.068912782 -0.14896786 0.17222655
0.013679596 -0.16000956 0.23403516
0.022751968 -0.14046673 0.17927352
-0.015361137 -0.16125961 0.21469744
0.044027694 -0.16000958 0.23207125
0.035294596 -0.16000962 0.20899849
0.067609563 -0.16000958 0.23544253
0.011871698 -0.16000962 0.20672463
0.085923187 -0.16000956 0.23498644
0.094773941 -0.16000958 0.23566206
0.10480236 -0.16000956 0.23783979
0.11367019 -0.16000958 0.23523882
0.026375927 -0.12096336 0.17446595
0.134572 -0.16000959 0.2349045
0.14467193 -0.16000956 0.23423567
0.16693929 -0.15623167 0.19964305
0.12390719 -0.16098244 0.20889518
0.1764406 -0.16000958 0.23125929
0.18636821 -0.16000956 0.23612718
0.20287931 -0.15387985 0.2132775
0.070296273 -0.16250965 0.1897814
0.19303399 -0.16025278 0.23010263
0.22556502 -0.16000958 0.23389925
0.19403581 -0.14111945 0.21796493
0.19811271 -0.16167626 0.23316801
0.17988995 -0.16000962 0.20690458
0.26521182 -0.16000956 0.23362809
0.27589703 -0.16000956 0.23426268
0.28582612 -0.16000956 0.23583557
0.25321233 -0.15875995 0.20847546
0.30624309 -0.16000956 0.23404676
0.31320471 -0.16000958 0.23416041
0.32380551 -0.16000958 0.23495902
0.25309801 -0.15391642 0.19628581
0.25608456 -0.16000964 0.20198864
0.35498029 -0.16000958 0.23515424
0.36567092 -0.16000956 0.23737645
0.37030429 -0.16000958 0.23916395
0.38368836 -0.16000956 0.23720253
0.39997002 -0.1667615 0.2345718
-0.40002859 -0.1538486 0.23257968
-0.3900286 -0.15394183 0.23474903
-0.0050295806 -0.15494466 0.23279288
0.0049704229 -0.15545997 0.23473623
0.38996941 -0.15574671 0.23603612
0.39997 -0.15358128 0.23399194
-0.40002859 -0.14246431 0.23297018
-0.24766207 -0.15025957 0.19811209
-0.13366129 -0.13417925 0.19180733
0.024816683 -0.14384827 0.21956871
0.38996944 -0.1462564 0.23221672
0.39997 -0.14169683 0.23275752
-0.40002856 -0.13279407 0.23673391
-0.3900286 -0.13483892 0.23574153
-0.0050295773 -0.13465153 0.23464024
0.004970422 -0.13458259 0.23424214
0.31759945 -0.1288815 0.22412263
0.32905877 -0.14104642 0.22734879
-0.38658699 -0.12499652 0.21798809
-0.3900286 -0.12628737 0.23422059
-0.0050295782 -0.12639709 0.2339756
0.074336514 -0.13105196 0.16527697
0.36281505 -0.13025708 0.23126303
0.34417057 -0.12902153 0.21593764
-0.32803047 -0.10609144 0.19393438
-0.3749612 -0.12243465 0.22055018
-0.0050295759 -0.11538817 0.23541628
-0.054148879 -0.12613948 0.22963057
0.31503707 -0.13033091 0.19938926
0.39854133 -0.11674962 0.2206877
-0.40002862 -0.104582 0.23424521
-0.39502871 -0.075145759 0.17073764
-0.0050295768 -0.10131308 0.23488347
-0.038356874 -0.11694833 0.19930845
0.39997002 -0.10496163 0.23359764
-0.40002862 -0.095213756 0.2346226
-0.27306542 -0.10517068 0.17937987
-0.0050295768 -0.094875097 0.23498857
0.004970422 -0.094741769 0.23433441
0.38996941 -0.092955559 0.23462956
0.35615757 -0.10577092 0.21509682
-0.263688 -0.1090278 0.14740138
-0.3900286 -0.086501084 0.23474586
-0.0050295759 -0.086981624 0.23553091
0.0049704239 -0.083146811 0.235192
0.38996941 -0.085816808 0.23497091
0.36751398 -0.096430518 0.21010481
-0.40002859 -0.074834108 0.23536715
-0.20156474 -0.094795614 0.20239595
-0.005029574 -0.074771985 0.23622186
0.10175179 -0.10401952 0.17031479
0.29957893 -0.086854823 0.2103211
0.24525228 -0.092959352 0.21839538
-0.24733594 -0.10140705 0.17791693
-0.39002863 -0.065300494 0.23456392
-0.0050295773 -0.063867837 0.2347877
-0.0088982806 -0.077275664 0.2048392
0.29603085 -0.083523445 0.21525685
0.39663643 -0.061071217 0.19897547
-0.3351585 -0.053308662 0.21406373
-0.34902397 -0.053741165 0.17388871
-0.0050295778 -0.054884069 0.23441374
0.0049704202 -0.054880399 0.23334029
0.38996941 -0.055196065 0.23428683
0.22465029 -0.056142267 0.17490737
-0.40002859 -0.043719865 0.23763573
-0.39002863 -0.043750212 0.23524468
-0.005029574 -0.044996493 0.23631345
-0.02541486 -0.055172641 0.17727835
0.29747808 -0.066192344 0.19531111
0.39997002 -0.043720953 0.2355058
-0.40002856 -0.034478031 0.2366457
-0.3900286 -0.036259264 0.23273492
-0.005029575 -0.037743818 0.23582345
-0.11170208 -0.075382546 0.17760825
0.38996944 -0.034734294 0.2337712
0.33385181 -0.03847741 0.2068488
-0.33266979 -0.03923434 0.23476934
-0.3900286 -0.028067201 0.23507065
-0.063516602 -0.04797785 0.19436246
0.0049704229 -0.024170157 0.23468612
0.38996941 -0.026300378 0.23437002
0.39997 -0.025414282 0.2355354
-0.40002865 -0.016108792 0.2361317
-0.3900286 -0.014470552 0.23433247
-0.0050295773 -0.01572579 0.23465335
0.018709276 -0.057156734 0.18534598
0.38996944 -0.015167756 0.23497774
0.39997002 -0.014263104 0.23407714
-0.28695771 -0.045486707 0.17553189
-0.3360413 -0.026009943 0.22111219
-0.0044406629 -0.0037571525 0.23506777
0.0046097231 -0.0049429489 0.23486614
0.38996944 -0.0060360003 0.23377508
0.3249796 -0.020053772 0.22311828
-0.30978623 -0.17000967 0.17428103
-0.2602087 -0.16407634 0.21948364
-0.31674153 -0.16402777 0.20168167
-0.36339945 -0.17000955 0.24567759
-0.35518485 -0.17000955 0.24630694
-0.34589607 -0.17000958 0.24443635
-0.286782 -0.15487783 0.2311209
-0.32504123 -0.17000958 0.24496217
-0.31575644 -0.17000955 0.24497768
-0.30598909 -0.17000955 0.24567364
-0.29737908 -0.17000955 0.24558941
-0.28487903 -0.17000957 0.24380286
-0.23131415 -0.16742925 0.22470187
-0.28150883 -0.16800962 0.21237583
-0.18291339 -0.14442167 0.20429525
-0.083432406 -0.15350233 0.19938697
-0.2356423 -0.17000958 0.24165098
-0.22835378 -0.17000955 0.24670933
-0.17210203 -0.14546204 0.18031102
-0.15059607 -0.15971008 0.20979635
-0.19513042 -0.17000955 0.2440165
-0.18287034 -0.17000955 0.24539998
-0.17456436 -0.17000955 0.24723206
-0.1169737 -0.13906869 0.1827625
-0.11576356 -0.15388969 0.19947231
-0.14525267 -0.17000955 0.24500732
-0.13451338 -0.17000955 0.24602015
-0.12556148 -0.17000955 0.24437074
-0.052108578 -0.17000958 0.24276753
-0.10362084 -0.17000955 0.24515992
-0.010926603 -0.17000958 0.23259127
-0.08560133 -0.17000955 0.24380521
-0.076174535 -0.17000955 0.24689388
-0.066103958 -0.17000957 0.24409628
-0.056548223 -0.17000955 0.24483648
-0.045649268 -0.17000955 0.24505085
-0.032726601 -0.17000957 0.24230163
-0.027007431 -0.17000955 0.24704103
-0.01543343 -0.17000955 0.24547067
-0.061496861 -0.16078387 0.2142936
0.0047145877 -0.17000955 0.24525857
0.022914072 -0.16351663 0.23041993
0.024072943 -0.17000957 0.24349175
0.035316367 -0.17000955 0.2431156
-0.0017568091 -0.14753935 0.20448649
0.044423617 -0.15798578 0.21095698
0.089813106 -0.15443079 0.20242506
0.011443445 -0.16682506 0.19745986
0.081690609 -0.17000955 0.24555612
0.11918514 -0.16800961 0.22280899
0.10669869 -0.17000955 0.24505824
0.11621708 -0.17000955 0.24556293
0.12559909 -0.17000955 0.2434524
0.10109154 -0.14138182 0.20723784
0.14563496 -0.17000958 0.24511953
0.15011312 -0.17000954 0.24975182
0.16319901 -0.17000955 0.24533266
0.069933929 -0.16308007 0.19803765
0.18477821 -0.17000957 0.24423666
0.1956898 -0.17000957 0.24369672
0.2435226 -0.14354976 0.22944379
0.17442763 -0.16883199 0.19106369
0.017618164 -0.14254746 0.11743315
0.25514752 -0.16040134 0.21611103
0.24410808 -0.17000955 0.24391642
0.29091525 -0.15622288 0.18982704
0.26516435 -0.17000961 0.22285496
0.16956879 -0.15672788 0.19680324
0.28385505 -0.17000955 0.24582344
0.15715721 -0.1700097 0.16018492
0.30443293 -0.17000958 0.24496818
0.32665771 -0.15613709 0.22621083
0.32595548 -0.17000955 0.24626923
0.33586687 -0.17000957 0.24412206
0.34409556 -0.17000955 0.24626093
0.36288193 -0.16216281 0.23795845
0.34609848 -0.15148684 0.16243896
0.2780869 -0.15946832 0.21897724
0.38284609 -0.17000955 0.24192587
0.39405078 -0.17000955 0.24604072
-0.40002856 -0.16535763 0.24348444
-0.34542796 -0.13946898 0.20853469
-0.37664753 -0.16000956 0.24406776
-0.36484924 -0.16000955 0.24619813
-0.35691988 -0.16000956 0.24540326
-0.32223874 -0.16200958 0.23829706
-0.33653411 -0.16000956 0.24688224
-0.32643956 -0.16000956 0.24592015
-0.25846925 -0.14117491 0.18385866
-0.32518697 -0.12618269 0.17980894
-0.29543275 -0.16000956 0.24503228
-0.28392875 -0.16000955 0.24912272
-0.27362666 -0.16000955 0.24583793
-0.2645252 -0.16000956 0.24598122
0.071633458 -0.091610715 0.20228666
-0.24285927 -0.16000956 0.24332145
-0.23744631 -0.16000956 0.24514046
-0.13327304 -0.16000964 0.20594947
-0.1504121 -0.13394913 0.19795226
-0.20640752 -0.16000956 0.24397044
-0.12575793 -0.14113215 0.19286722
-0.13806736 -0.16167627 0.22505498
-0.1746977 -0.16000956 0.24623668
-0.11582822 -0.15942582 0.21268117
-0.15321299 -0.16000956 0.24403021
-0.14225867 -0.16000955 0.2456606
-0.13498256 -0.16000956 0.24515235
-0.12522376 -0.16000956 0.24511056
-0.11403405 -0.16000956 0.24370095
-0.11761323 -0.1620096 0.22421725
-0.094707601 -0.16000956 0.24495894
-0.08434625 -0.16000956 0.24181223
-0.07203339 -0.16000956 0.24266595
-0.021657366 -0.14948387 0.21708415
-0.05336405 -0.16000956 0.2454512
-0.04512307 -0.16000956 0.24244124
-0.035550188 -0.16000956 0.24467418
-0.10567981 -0.15451559 0.2116072
-0.014371194 -0.16000956 0.24406055
-0.0079181911 -0.16000956 0.24734305
0.0089438558 -0.16000956 0.24078129
0.015213517 -0.16000956 0.24522106
0.024692204 -0.16000956 0.24425101
0.034494858 -0.16000955 0.24373333
0.043505765 -0.16000956 0.24546784
0.067086928 -0.14165986 0.16275337
0.063078068 -0.16000956 0.24534467
0.073802546 -0.16000956 0.2445908
0.084748052 -0.16000956 0.24681593
0.095074609 -0.16000958 0.24381593
0.10073605 -0.16000956 0.24507406
0.11624974 -0.15319228 0.22240189
0.14052753 -0.13761471 0.14976765
0.1359183 -0.16000956 0.24414797
0.11440308 -0.16125959 0.22427426
0.15363459 -0.16000956 0.24555285
0.14073214 -0.14778109 0.21579047
0.17498264 -0.16000955 0.24642524
0.18321034 -0.16000956 0.24705754
0.19407275 -0.16000955 0.24549983
0.20606776 -0.16000955 0.24603038
0.18621755 -0.15111741 0.21889108
0.097331487 -0.1216321 0.16253652
0.23528409 -0.16000955 0.24527292
0.24440216 -0.16000956 0.2468062
0.25383511 -0.16000956 0.2442213
0.26201487 -0.16000955 0.24718483
0.27308106 -0.16000956 0.24190448
0.28347951 -0.16000956 0.24302331
0.29522908 -0.16000956 0.24555692
0.15019289 -0.16000965 0.1972162
0.31472969 -0.16000956 0.24489319
0.32427046 -0.16000956 0.24783269
0.26150239 -0.16000956 0.24053904
0.34510404 -0.16000955 0.24514946
0.35355306 -0.16000955 0.24490531
0.29080901 -0.16100961 0.22024165
0.37539634 -0.16000956 0.24498253
0.38044351 -0.13569683 0.20182201
0.39997002 -0.16622385 0.24583304
-0.40002853 -0.15340841 0.24352485
-0.3236596 -0.150428 0.21114966
-0.005029561 -0.15535693 0.24364749
0.0049704402 -0.15406057 0.24399543
0.37954789 -0.15544824 0.21920538
0.39997002 -0.15484573 0.24636045
-0.34360021 -0.13380785 0.21947162
-0.39002857 -0.14554581 0.24592707
0.032841373 -0.14594801 0.21673959
0.0049704416 -0.14451832 0.24505135
0.38996941 -0.14593555 0.24299106
0.39997002 -0.14642256 0.24350496
-0.40002853 -0.13734695 0.2459569
-0.39002857 -0.13597898 0.24684028
-0.0050295582 -0.13456932 0.24533424
0.0035418114 -0.1255541 0.21230502
0.32205608 -0.13674662 0.24377839
0.39997 -0.13434333 0.24495494
-0.40002853 -0.1249634 0.24635918
-0.3900286 -0.12372917 0.24398899
0.015945589 -0.11769928 0.19677624
0.004970442 -0.12389895 0.24531959
0.37559459 -0.13397048 0.19560906
0.39997002 -0.12441852 0.24765146
-0.40002853 -0.11318 0.24421233
-0.36612162 -0.11676015 0.23649772
0.042304315 -0.12235304 0.21668504
0.039049294 -0.10128579 0.21006396
0.28784359 -0.12067231 0.23232883
0.13663712 -0.13024348 0.23239979
-0.32765213 -0.09731786 0.19553706
-0.39002857 -0.10260791 0.24431436
-0.0050295624 -0.1071597 0.24282289
0.0049704448 -0.10453359 0.24654417
0.38996944 -0.10545957 0.24426818
0.28655246 -0.11636303 0.22748625
-0.37076512 -0.10155754 0.23645909
-0.17851292 -0.11980981 0.20731723
-0.015057493 -0.093691051 0.20624119
0.0049704448 -0.093062393 0.24671701
0.38996944 -0.095667675 0.24502102
0.26194414 -0.10421107 0.21555647
-0.40002856 -0.086621627 0.24505156
-0.39002854 -0.086150482 0.24355316
-0.0050295615 -0.083257549 0.24371527
0.049135651 -0.096279368 0.20981298
0.3912195 -0.077834502 0.23351109
0.31344238 -0.089061834 0.19208838
-0.40002859 -0.073551111 0.24320114
-0.32420537 -0.091766082 0.22139615
0.036276367 -0.084685825 0.22171307
0.021642862 -0.084987342 0.21626973
0.38996944 -0.072371677 0.24439995
0.39997002 -0.073173396 0.2447491
-0.4000285 -0.066209465 0.24658415
-0.39002857 -0.06610655 0.24481916
-0.0050295568 -0.064821355 0.24602385
-0.041140627 -0.057885874 0.20733373
0.32566836 -0.079447761 0.21677682
0.34782058 -0.076218523 0.20247582
-0.38263449 -0.063050829 0.19534402
-0.3900286 -0.054918207 0.24429464
-0.0050295619 -0.053460859 0.24306378
0.0049704378 -0.054023068 0.24279433
0.24923883 -0.07474082 0.23846765
0.32931894 -0.0652472 0.16845183
-0.40002853 -0.046977408 0.24540752
-0.39002857 -0.043209348 0.24245027
-0.0050295568 -0.049420718 0.24575223
-0.015938425 -0.0690597 0.21519612
0.38996944 -0.046941563 0.24489705
0.39997002 -0.04505562 0.24462381
-0.40002853 -0.033999003 0.2439383
-0.3900286 -0.034773301 0.24509878
-0.0050295568 -0.035602726 0.245873
0.004970436 -0.033844523 0.24199195
0.17073552 -0.05826883 0.18687761
0.39997002 -0.034886867 0.24260609
-0.31569278 -0.041002616 0.24189425
-0.39002863 -0.025339838 0.24449039
0.045688257 -0.056853868 0.19066195
-0.075407803 -0.058947314 0.19734269
0.38996947 -0.024469119 0.24468756
0.39997002 -0.025698522 0.24652576
-0.40002859 -0.012195505 0.24145362
-0.33321798 -0.036362708 0.22270465
-0.0050295666 -0.014652082 0.24040771
0.037192639 -0.026483983 0.19640838
0.34437364 -0.037510261 0.20176786
0.22817886 -0.09179958 0.20150562
-0.40002856 -0.0052198223 0.24461833
-0.22106378 -0.068009935 0.17616634
-0.0044638175 -0.0044574081 0.24443045
0.0047390829 -0.0035033929 0.24604286
0.20234065 -0.05728896 0.19847582
0.32723603 -0.018734669 0.22975257
-0.39078501 -0.17000954 0.25404522
-0.38527524 -0.17000952 0.2559101
-0.2981337 -0.16551451 0.23223679
-0.3661136 -0.17000955 0.25339311
-0.26329279 -0.15058658 0.20135394
-0.30560878 -0.15600854 0.23922899
-0.17975029 -0.14493416 0.21232307
-0.32778892 -0.17000955 0.25122017
-0.32697529 -0.16240847 0.23259948
-0.27294093 -0.1612674 0.23090571
-0.29480514 -0.17000954 0.25729415
-0.2846044 -0.17000955 0.25413564
-0.27685317 -0.17000955 0.25589392
-0.26389524 -0.17000954 0.25540328
-0.25355276 -0.17000954 0.25483018
-0.22850513 -0.17000957 0.2457628
-0.23402357 -0.17000955 0.25408959
-0.13302818 -0.16375035 0.2124681
-0.21558671 -0.17000954 0.25419196
-0.20298961 -0.17000955 0.25568575
-0.1957076 -0.17000954 0.25421923
-0.18761702 -0.17000954 0.25832176
-0.090587489 -0.17000958 0.22851402
-0.16473827 -0.17000955 0.25531316
-0.1573679 -0.17000954 0.25520849
-0.14544375 -0.17000955 0.25270399
-0.13261008 -0.17000957 0.25292829
-0.12490892 -0.17000952 0.25738585
-0.11347476 -0.17000954 0.25437874
-0.10632485 -0.17000954 0.25375721
-0.096323356 -0.17000954 0.25639236
-0.08353103 -0.17000955 0.25257251
-0.032852385 -0.16744632 0.22504324
-0.066368632 -0.17000955 0.25468194
-0.041793842 -0.16889845 0.24243334
-0.04505403 -0.17000954 0.25415602
-0.033792447 -0.17000954 0.25456259
-0.02357742 -0.17000954 0.25196707
-0.015524209 -0.17000955 0.25333899
-0.0060809958 -0.17000954 0.25371861
0.0024651964 -0.12542351 0.17666933
0.017794015 -0.17000955 0.25448114
0.020755081 -0.17000955 0.25498062
0.032759532 -0.17000955 0.25141346
0.044132181 -0.17000954 0.25655147
0.053958505 -0.17000954 0.25306416
-0.011388921 -0.16750965 0.19088218
-0.067770593 -0.16858108 0.19458872
-0.0073982375 -0.15466869 0.22581549
0.051427044 -0.15387067 0.18568781
0.10314865 -0.17000954 0.25447565
0.11812551 -0.17000954 0.25441104
0.12340935 -0.17000952 0.25700325
0.14777647 -0.16774713 0.20966053
0.22490112 -0.13488057 0.20662497
0.15550856 -0.17000954 0.25422814
0.16212314 -0.17000955 0.25468653
0.097320624 -0.074740604 -0.0099836215
0.16930625 -0.17000955 0.23707497
0.19553035 -0.17000955 0.2547543
0.24948454 -0.16667634 0.18124692
0.10067058 -0.15011141 0.12523413
0.17842582 -0.15401341 0.21151148
0.23552598 -0.17000954 0.25385594
0.15296119 -0.16767603 0.25190184
0.25586629 -0.17000955 0.25453493
0.26511535 -0.17000954 0.25639123
0.28274187 -0.16602832 0.21180838
0.28531414 -0.17000954 0.25506094
0.2918219 -0.17000955 0.2546573
0.30414301 -0.17000955 0.25451684
0.1254105 -0.16784164 0.16455863
0.3256506 -0.17000955 0.25590926
0.20882063 -0.15922707 0.2037777
0.34567499 -0.17000954 0.25533867
0.35603303 -0.17000955 0.253775
0.36132634 -0.17000954 0.2554661
0.37446821 -0.17000952 0.25569308
0.38664508 -0.17000954 0.25530627
0.39492211 -0.17000952 0.25530657
-0.39510217 -0.14319679 0.21779497
-0.3837043 -0.16000953 0.25511178
-0.37532526 -0.16000953 0.2542558
-0.32272133 -0.16200961 0.21315952
-0.3631998 -0.14313062 0.24694741
-0.23675859 -0.14678685 0.20419525
-0.33161414 -0.16000953 0.25618541
-0.28930485 -0.16112065 0.24335732
-0.31627315 -0.16000953 0.2530677
-0.23979378 -0.14214289 0.21912111
-0.23638555 -0.16250965 0.19424923
-0.28356045 -0.16000953 0.25435817
-0.27522555 -0.16000952 0.25516379
-0.23648299 -0.15618114 0.25039274
-0.22367984 -0.16112067 0.23247488
-0.12387916 -0.14237884 0.23504908
-0.23306362 -0.16000953 0.25668439
-0.014257669 -0.16013116 0.24071747
-0.18989381 -0.14189175 0.21791434
-0.13773122 -0.15870525 0.23083833
-0.1047092 -0.15165368 0.19896495
-0.094884299 -0.12852891 0.20532356
-0.17530473 -0.16000955 0.25330395
-0.12070613 -0.16025956 0.24131477
-0.10779133 -0.16000958 0.23816006
-0.14599583 -0.16000953 0.25434896
-0.13789347 -0.16000953 0.25456986
-0.11379828 -0.14948671 0.21544006
-0.12051262 -0.14624844 0.20767362
-0.10376461 -0.16000953 0.25461674
-0.090931818 -0.14211042 0.17352095
-0.084300965 -0.16000955 0.25462967
-0.073410153 -0.16000953 0.25466409
-0.091726206 -0.16112065 0.24403164
-0.055432696 -0.16000953 0.25469822
-0.047911942 -0.16000953 0.25614014
-0.035191759 -0.16000953 0.25718123
-0.084803924 -0.16167623 0.23464748
-0.050480973 -0.16059494 0.21066022
-0.007580366 -0.16000953 0.25566563
0.006267352 -0.16000953 0.25472564
0.057042249 -0.14508611 0.25335494
0.023807671 -0.16000953 0.25968596
0.035800442 -0.16000953 0.2573221
-0.027188722 -0.1597352 0.22552513
0.05684207 -0.16000953 0.25451431
0.065601438 -0.16000953 0.25830024
0.076367311 -0.14780246 0.21657154
0.086094856 -0.16000953 0.25436881
0.012256954 -0.16250962 0.20457648
0.10535143 -0.16000952 0.25602198
0.11497516 -0.16000953 0.2551758
0.12331154 -0.16000953 0.25520799
0.13617845 -0.16000953 0.25478956
0.066953398 -0.14433669 0.20435445
0.15770119 -0.16000953 0.2552008
0.14683409 -0.15530688 0.21589145
0.06084105 -0.15525174 0.20119846
0.18045653 -0.16000953 0.25596511
0.19551037 -0.16000953 0.25264248
0.17867798 -0.14601204 0.23034427
0.22876772 -0.15431535 0.23361447
0.22659731 -0.16000955 0.25476035
0.26440376 -0.15625088 0.18866491
0.17465025 -0.16250956 0.23396966
0.2591444 -0.15991932 0.24842891
0.24804667 -0.16000955 0.25246739
0.22805993 -0.16000956 0.23649681
0.28554758 -0.16000953 0.25820157
0.22719513 -0.15756357 0.22857799
0.30443799 -0.16000953 0.25520945
0.26601762 -0.15896565 0.21377453
0.25986183 -0.12668319 0.1996212
0.33452564 -0.16000953 0.25461331
0.34643984 -0.16000953 0.25475904
0.29091531 -0.16167621 0.25197932
0.36276552 -0.16000953 0.25508413
0.34027788 -0.16000959 0.22461891
0.38359761 -0.16000953 0.25497437
0.39997 -0.16662729 0.25565284
-0.35128206 -0.15751074 0.23586403
-0.39002854 -0.1568882 0.258901
-0.0050295359 -0.15610619 0.25769666
0.0049704625 -0.15800738 0.25677681
0.38996947 -0.15402381 0.25572389
0.28711307 -0.13944465 0.23721497
-0.40002853 -0.1448168 0.25728416
-0.39002857 -0.14565945 0.25481158
-0.0050295349 -0.14740176 0.25806472
0.0049704583 -0.14538863 0.25446454
0.36037302 -0.14624445 0.23741944
0.39997 -0.14677364 0.25434306
-0.4000285 -0.13392399 0.25603521
-0.39002854 -0.13664669 0.25393796
-0.0050295419 -0.13441432 0.25410658
0.038052853 -0.13746367 0.2329299
0.24500425 -0.11304071 0.1824948
0.38257751 -0.12770596 0.20123558
-0.40002856 -0.12590347 0.25605321
-0.39002857 -0.12550455 0.25260687
-0.0050295377 -0.12434141 0.25657779
0.0095729483 -0.13219719 0.21005778
0.38996947 -0.12613034 0.25575081
0.27089685 -0.13452666 0.19198945
-0.40002853 -0.11428039 0.25656986
-0.24105713 -0.12451978 0.21232538
-0.0050295419 -0.11600488 0.25426313
0.0049704621 -0.1149633 0.2562837
0.38996947 -0.11469414 0.25540942
0.39997002 -0.11575674 0.25425157
-0.4000285 -0.10470807 0.25447115
-0.39002857 -0.10485448 0.2543149
0.054763049 -0.11212251 0.2239681
0.0049704555 -0.10499825 0.25261706
0.38996947 -0.10505056 0.25612783
0.39997002 -0.10499439 0.25471607
-0.40002853 -0.095808893 0.2559123
-0.35897189 -0.080478154 0.21256107
-0.13669597 -0.10447808 0.20049302
0.0049704551 -0.096459895 0.25274432
0.29756162 -0.090839453 0.22355361
0.39997 -0.093331218 0.2575925
-0.29877883 -0.088335775 0.24192464
-0.39002854 -0.084807828 0.25432298
-0.0050295382 -0.084721252 0.25657997
0.0049704611 -0.084832355 0.25578028
0.34483868 -0.094770968 0.23101622
0.35370862 -0.0980803 0.21693771
-0.37026039 -0.068486698 0.22775097
-0.39002854 -0.07220611 0.2588768
-0.0050295452 -0.074315943 0.25259957
0.0049704602 -0.076369621 0.25544438
0.38996941 -0.076058716 0.25388274
0.39997 -0.075643077 0.25187793
-0.30560777 -0.089094862 0.23836565
-0.23795512 -0.095608205 0.23436445
-0.0050295414 -0.064982884 0.25481117
0.0049704583 -0.063961133 0.25424746
0.28117898 -0.076818466 0.21160428
0.39997002 -0.063875459 0.25570926
-0.26519486 -0.079396062 0.19788237
-0.29318967 -0.066117913 0.24976425
-0.0050295414 -0.055454787 0.25465497
0.0049704546 -0.056367964 0.25253499
0.38996947 -0.055879239 0.25614172
0.39997 -0.055545989 0.25544202
-0.4000285 -0.044807479 0.25391668
-0.39002854 -0.045890477 0.25362957
-0.0050295349 -0.041673634 0.25819978
0.0049704621 -0.04721076 0.25630671
0.38669968 -0.060373448 0.23882633
0.27576613 -0.077705279 0.21475135
-0.40002853 -0.033973526 0.25350216
-0.39002854 -0.032556016 0.25682065
-0.0050295396 -0.035483345 0.25530961
-0.035601482 -0.057352554 0.24799347
0.20205873 -0.079435229 0.1815607
0.39997002 -0.033194207 0.25386763
-0.30955586 -0.039862562 0.23884247
-0.39002854 -0.023344785 0.25482711
-0.0016401059 -0.057794057 0.2181806
0.10122027 -0.055012979 0.15480521
0.38996947 -0.025552748 0.25568914
0.31761402 -0.058649734 0.21221833
-0.37506187 -0.016485816 0.21557447
-0.39002857 -0.01616258 0.25725958
-0.0050295372 -0.015942421 0.25666249
0.0049704043 -0.019850578 0.22430629
0.26943612 -0.060209822 0.21776085
0.39997 -0.013731822 0.25487399
-0.30467936 -0.033647187 0.23283766
-0.35822144 -0.007086053 0.22979322
-0.027676232 -0.025921997 0.24987002
-0.022050893 -0.034503058 0.22104141
0.38996944 -0.0041626627 0.25515139
0.39704233 -0.0012063837 0.25425074
-0.39463103 -0.17000954 0.26747936
-0.31469727 -0.14831828 0.22682013
-0.29199895 -0.16038075 0.253093
-0.363819 -0.17000952 0.26442432
-0.3570134 -0.17000952 0.26350796
-0.34587413 -0.17000952 0.26404554
-0.33307859 -0.17000952 0.26500773
-0.24455397 -0.16524915 0.21012376
-0.3137759 -0.17000955 0.24753501
-0.3007907 -0.16675091 0.22709683
-0.29339191 -0.17000952 0.26759517
-0.19836628 -0.17000954 0.25327739
-0.10167924 -0.16149987 0.17339373
-0.26373798 -0.17000952 0.26569661
-0.25640747 -0.17000952 0.26414266
-0.24401954 -0.17000952 0.26469344
-0.23440222 -0.17000952 0.26504433
-0.25080812 -0.14895712 0.25061068
-0.073044673 -0.16135989 0.17102604
-0.20411879 -0.17000952 0.26557493
-0.19526704 -0.17000952 0.26364452
-0.17697643 -0.16092269 0.21219121
-0.098219037 -0.17000966 0.19417942
-0.10902727 -0.16686197 0.22672835
-0.15606759 -0.17000952 0.26412383
-0.13696936 -0.14937495 0.17650533
-0.13513461 -0.1681959 0.24639589
-0.12405923 -0.17000952 0.26398298
-0.11414358 -0.17000961 0.21368152
-0.1077477 -0.1593197 0.22840793
-0.096998863 -0.17000954 0.26708722
-0.08624316 -0.17000952 0.26562825
-0.072520904 -0.17000954 0.24821025
-0.053893745 -0.14743587 0.23797214
-0.055521578 -0.17000951 0.26481783
-0.07332848 -0.15077448 0.23136616
-0.034977905 -0.17000954 0.26785034
-0.032556441 -0.17000964 0.2050132
0.039903224 -0.17000955 0.24664961
-0.0030781615 -0.17000952 0.26429677
-0.024892684 -0.17000955 0.24906603
0.014565739 -0.17000951 0.26814103
0.026728598 -0.17000952 0.26560205
0.035094939 -0.17000954 0.26549253
0.042613141 -0.17000954 0.26433691
0.056353256 -0.17000952 0.2653136
0.066285446 -0.17000952 0.2643683
-0.0080524404 -0.17000958 0.22966944
0.090057895 -0.15692244 0.20494786
0.096209884 -0.17000954 0.26469547
0.10727684 -0.17000952 0.26572934
0.14157155 -0.15845416 0.24972136
0.15786164 -0.1557786 0.25156587
0.13222796 -0.17000952 0.26639614
0.1470654 -0.17000952 0.26446065
0.1534999 -0.17000954 0.26592782
0.16059305 -0.17000952 0.2637845
0.17353953 -0.17000952 0.26470193
0.14551723 -0.16780251 0.24297175
0.24574637 -0.1315362 0.25013319
0.22462475 -0.14746553 0.22044848
0.16148345 -0.17000954 0.26098156
0.22544047 -0.17000952 0.26697975
0.22935806 -0.17000954 0.25053564
0.24333933 -0.17000952 0.26554081
0.25501305 -0.17000952 0.26566556
0.17451191 -0.16423917 0.22732079
0.24968581 -0.16490003 0.23796055
0.28478569 -0.17000952 0.26532954
0.29478928 -0.17000952 0.26496315
0.30575031 -0.17000952 0.26371807
0.3158806 -0.17000952 0.26505774
0.32810616 -0.17000952 0.26370069
0.20021693 -0.16093072 0.18099594
0.34452084 -0.17000952 0.26639977
0.21840899 -0.15476902 0.13028008
0.36365235 -0.17000952 0.26334941
0.37487096 -0.17000952 0.26369408
0.38200429 -0.17000952 0.26432821
0.39617211 -0.17000954 0.26608238
-0.26669544 -0.15255581 0.2415456
-0.38506615 -0.16000952 0.26422423
-0.37635899 -0.16000953 0.26506913
-0.36553001 -0.16000952 0.26458108
-0.35471481 -0.16000953 0.26819223
-0.34463701 -0.1600095 0.26611397
-0.33551705 -0.1600095 0.26732945
-0.32593814 -0.1600095 0.26676932
-0.26922542 -0.16143811 0.24767573
-0.30075446 -0.16000952 0.26585484
-0.2984857 -0.16000953 0.26077139
-0.20409098 -0.15606488 0.23423952
-0.21839122 -0.16200955 0.24443002
-0.14119582 -0.11919135 0.12598506
-0.2546252 -0.1600095 0.26761746
-0.27459249 -0.15692967 0.24007145
-0.17369848 -0.13635764 0.1991557
-0.19942771 -0.14038117 0.21149464
-0.17312761 -0.1559826 0.2418724
-0.20599858 -0.16000953 0.2630567
-0.19294326 -0.16000952 0.26635653
-0.19567743 -0.16143809 0.26271558
